//X Y Z Classification
504083.65000153 463034.55999756 382.98999023 2
504077.55999756 463042.61000061 382.94000244 2
504091.80999756 463023.83000183 382.95001221 2
504080.51000214 463038.75 385.72000122 16
504074.76999664 463046.33000183 382.95999146 2
504088.48000336 463028.25 383.07000732 2
504089.90000153 463026.38999939 383.05999756 2
504088.01999664 463028.88999939 386.07998657 16
504077.97000122 463042.16999817 385.76000977 16
504076.62999725 463043.96000671 382.95999146 2
504081.55000305 463037.46000671 382.97000122 2
504082.19000244 463036.63999939 382.98001099 2
504076.15000153 463044.61999512 383.01000977 2
504087.73000336 463029.36000061 386.14001465 16
504076.55000305 463044.11999512 382.95001221 2
504087.01999664 463030.33000183 386.01000977 16
504086.26000214 463031.33000183 382.97000122 2
504076.16999817 463044.66000366 383 2
504074.69000244 463046.63000488 382.98001099 2
504077.93000031 463042.36999512 385.91000366 16
504077.40000153 463043.08000183 386.42999268 16
504086.51999664 463031.07000732 383.01000977 2
504074.66000366 463046.71000671 382.98001099 2
504082.51999664 463036.36999512 383 2
504083.59999847 463034.94999695 383 2
504087.69000244 463029.57000732 386.1499939 16
504080.09999847 463039.61000061 385.57998657 16
504079.69999695 463040.1499939 385.39001465 16
504077.73000336 463042.77000427 386.11999512 16
504081.18000031 463038.22000122 382.95999146 2
504080.55999756 463039.05000305 386.05999756 16
504089.69999695 463027.01000214 382.95001221 2
504079.29000092 463040.75999451 385.8999939 16
504091.47000122 463024.70999908 382.97000122 2
504085.08999634 463033.13999939 382.98999023 2
504084.19000244 463034.32000732 382.98999023 2
504085.95999908 463032.00999451 382.97000122 2
504088.94000244 463028.1000061 382.97000122 2
504088.83000183 463028.25999451 382.94000244 2
504088.47000122 463028.75 385.80999756 16
504074.59999847 463047.05999756 382.95001221 2
504077.55000305 463043.19000244 386.44000244 16
504078.47000122 463041.99000549 385.1499939 16
504075.76000214 463045.55999756 383.08999634 2
504077.58000183 463043.17999268 386.36999512 16
504076.70999908 463044.3500061 385.01998901 16
504092.61000061 463023.38999939 383.04000854 2
504082.01999664 463037.36999512 382.98999023 2
504080.88999939 463038.88000488 385.75 16
504076.63999939 463044.5 383 2
504079.58000183 463040.63000488 385.98001099 16
504076.86000061 463044.22999573 385.05999756 16
504085.90000153 463032.32000732 382.95999146 2
504080.52999878 463039.41999817 385.72000122 16
504091.45999908 463025.01999664 382.98999023 2
504075.08999634 463046.61999512 382.98001099 2
504080.98000336 463038.88000488 385.79000854 16
504077.19999695 463043.86000061 385.42001343 16
504076.44000244 463044.88000488 382.98999023 2
504076.69000244 463044.57000732 383.01000977 2
504091.55999756 463024.97000122 383.01998901 2
504082.20999908 463037.32000732 382.95001221 2
504075.79000092 463045.80000305 383 2
504089.76999664 463027.37000275 383 2
504080.13999939 463040.08000183 385.48001099 16
504074.75 463047.21000671 382.95999146 2
504083.95999908 463035.08000183 383 2
504079.23999786 463041.30999756 384.70001221 16
504075.79000092 463045.88999939 382.95999146 2
504088.37999725 463029.28999329 385.39001465 16
504087.30000305 463030.72999573 383.17999268 2
504074.77999878 463047.25 382.95999146 2
504077.65000153 463043.47999573 385.76998901 16
504088.87000275 463028.69999695 382.92999268 2
504091.04000092 463025.86000061 382.95999146 2
504088.30000305 463029.47000122 383.20001221 2
504083.77999878 463035.44000244 383.01000977 2
504076.48999786 463045.08000183 384.44000244 16
504087.81999969 463030.16000366 386.04000854 16
504089.27999878 463028.24000549 383.04998779 2
504092 463024.66999817 383.01000977 2
504092.13999939 463024.51000214 383.07000732 2
504088.76999664 463028.96000671 383.01000977 2
504091.58999634 463025.25 383 2
504077.22000122 463044.22000122 384.57998657 16
504092.83000183 463023.63999939 383.97000122 16
504079.26000214 463041.55999756 384.79000854 16
504082.52999878 463037.27000427 382.98001099 2
504092.58999634 463023.98999786 383.08999634 2
504086.61000061 463031.88999939 383.1000061 2
504090.68000031 463026.55000305 383.01000977 2
504088.05999756 463030.02000427 385.70999146 16
504086.37999725 463032.25 382.98999023 2
504076.56999969 463045.21000671 383 2
504082.16999817 463037.83999634 382.97000122 2
504088.38999939 463029.63999939 385.91000366 16
504090.18000031 463027.27999878 383 2
504086.54000092 463032.1000061 383.04000854 2
504075.26000214 463047 382.92999268 2
504078.48999786 463042.75999451 385.92999268 16
504083.23000336 463036.52000427 382.97000122 2
504087.83000183 463030.44999695 385.58999634 16
504088.56999969 463029.49000549 385.6000061 16
504088.22000122 463029.97000122 385.10998535 16
504076.37999725 463045.61000061 383.02999878 2
504088.58000183 463029.52999878 385.63000488 16
504092.51999664 463024.34999847 384.20999146 16
504091.77999878 463025.33999634 382.95999146 2
504076.09999847 463046.03999329 383.02999878 2
504088.55999756 463029.63000488 383.11999512 2
504088.70999908 463029.44000244 383.07998657 2
504082.29000092 463037.91000366 382.98001099 2
504088.43000031 463029.82000732 385.85998535 16
504088.63999939 463029.55999756 383.16000366 2
504087.86000061 463030.61000061 384.48001099 16
504080.19999695 463040.72999573 385.42999268 16
504078.43000031 463043.08000183 386.19000244 16
504076.62999725 463045.47000122 382.98001099 2
504084 463035.77000427 382.95999146 2
504087.98000336 463030.52999878 382.86999512 2
504077.62999725 463044.17999268 386.39001465 16
504078.09999847 463043.58000183 386.48001099 16
504088.97000122 463029.27000427 383 2
504078.41000366 463043.21000671 386.48001099 16
504087.77999878 463030.86999512 382.88000488 2
504076.84999847 463045.30999756 383 2
504086.73000336 463032.28999329 383 2
504085.73000336 463033.61999512 383.35998535 16
504079.38999939 463041.97999573 385.17999268 16
504089.09999847 463029.19999695 382.97000122 2
504092.54000092 463024.66999817 384.33999634 16
504085.59999847 463033.8500061 385.72000122 16
504076.91999817 463045.30999756 384.57998657 16
504077.69999695 463044.30000305 386.54000854 16
504090.98999786 463026.79000092 383.04998779 2
504089.97000122 463028.13000488 383.1000061 2
504090.61000061 463027.30000305 383.01998901 2
504088.97000122 463029.47999573 385.36999512 16
504084.84999847 463034.92999268 383.02999878 2
504091.80000305 463025.77999878 383.01000977 2
504091.62999725 463026.01999664 382.91000366 2
504089.41999817 463028.94999695 382.98999023 2
504091.01999664 463026.84999847 383.01000977 2
504080.73000336 463040.44999695 385.16000366 16
504080.33999634 463040.97999573 385.07000732 16
504092.5 463024.94999695 383.04998779 2
504092.73999786 463024.65000153 385.19000244 16
504082.80000305 463037.77999878 383 2
504091.80000305 463025.93000031 382.97000122 2
504077.18000031 463045.22999573 385.66000366 16
504088.87000275 463029.83000183 382.95999146 2
504080.02999878 463041.5 385.25 16
504082.86000061 463037.78999329 382.98001099 2
504080.37999725 463041.05999756 384.98999023 16
504082.19000244 463038.69000244 382.97000122 2
504085.19000244 463034.75 385.45999146 16
504082.69999695 463038.05000305 383.01000977 2
504081.08999634 463040.19000244 385.29998779 16
504091.65000153 463026.27999878 382.92999268 2
504079.93000031 463041.75999451 385.22000122 16
504089.51000214 463029.13000488 383 2
504082.81999969 463037.97000122 382.97000122 2
504076.54000092 463046.27999878 382.98999023 2
504092.88999939 463024.72000122 385.55999756 16
504076.48999786 463046.38000488 382.95999146 2
504085.12000275 463035.00999451 383.04998779 2
504085.5 463034.52000427 385.45001221 16
504082.12999725 463038.97999573 383.01998901 2
504082.09999847 463039.03999329 383.04998779 2
504078.37999725 463043.97000122 386.67001343 16
504092.18000031 463025.77999878 383.01998901 2
504078.34999847 463044.03999329 386.73999023 16
504080.56999969 463041.11999512 384.83999634 16
504078.26999664 463044.17999268 386.70999146 16
504076.58000183 463046.41999817 382.95999146 2
504079.33000183 463042.80999756 386.04000854 16
504085.90000153 463034.1499939 385.75 16
504092.26999664 463025.76000214 383.01998901 2
504085.33999634 463034.91999817 385.3500061 16
504091.38999939 463026.94999695 382.94000244 2
504081.30999756 463040.27000427 385.04000854 16
504082.87000275 463038.22000122 382.98999023 2
504085.16000366 463035.22000122 382.92001343 2
504087.25 463032.47999573 383.04000854 2
504079.18000031 463043.13999939 386.33999634 16
504083.65000153 463037.25999451 382.95999146 2
504085.94999695 463034.24000549 385.66000366 16
504080.33999634 463041.66000366 384.92999268 16
504087.01000214 463032.86999512 385.42999268 16
504080.48999786 463041.49000549 384.79998779 16
504078.23999786 463044.47000122 386.72000122 16
504088.61000061 463030.80999756 382.89001465 2
504076.98000336 463046.16999817 382.97000122 2
504081.80999756 463039.82000732 385.04000854 16
504089.20999908 463030.07000732 383.01998901 2
504083.55000305 463037.55000305 382.98001099 2
504091.41999817 463027.16999817 382.8999939 2
504086.91999817 463033.13999939 385.42001343 16
504077.05000305 463046.17999268 382.95999146 2
504080.12999725 463042.11000061 385.51998901 16
504089.37000275 463029.94999695 382.97000122 2
504092.63999939 463025.65000153 383.02999878 2
504081.06999969 463040.91999817 384.70999146 16
504077.70999908 463045.36999512 386.04998779 16
504085.23999786 463035.47000122 382.79000854 2
504083.44999695 463037.83999634 382.98001099 2
504091.72000122 463026.94999695 382.92999268 2
504081.79000092 463040.08000183 384.85998535 16
504083.79000092 463037.42999268 382.98001099 2
504080.56999969 463041.72000122 384.97000122 16
504085.72000122 463034.94000244 385.6499939 16
504084.27999878 463036.8500061 382.97000122 2
504081.05000305 463041.13000488 384.51998901 16
504082 463039.8999939 383 2
504088.40000153 463031.47000122 382.88000488 2
504080.95999908 463041.30000305 384.17001343 16
504084.98000336 463036.02000427 382.91000366 2
504081.16000366 463041.07000732 382.91000366 2
504091.23000336 463027.80000305 382.92999268 2
504083.86000061 463037.53999329 382.98001099 2
504080.06999969 463042.55999756 385.85998535 16
504078.75 463044.32000732 386.67001343 16
504085.19000244 463035.83999634 382.8999939 2
504083.20999908 463038.47000122 382.98999023 2
504088.22000122 463031.86999512 382.83999634 2
504078.5 463044.71000671 386.73001099 16
504089.02999878 463030.8500061 382.91000366 2
504085.87000275 463035.02999878 385.72000122 16
504083.16000366 463038.61999512 383 2
504084.27999878 463037.1499939 382.94000244 2
504092.73999786 463026.01999664 383 2
504091.52999878 463027.62999725 382.97000122 2
504092.47000122 463026.40000153 383.1000061 2
504090.01000214 463029.66999817 383.1499939 2
504084.55999756 463036.86000061 382.8999939 2
504091.87999725 463027.23999786 382.91000366 2
504083.12000275 463038.80000305 382.98001099 2
504086.08999634 463034.91000366 385.91000366 16
504088.26999664 463032.03999329 382.88000488 2
504091.30000305 463028.05999756 382.92001343 2
504089.25 463030.77999878 383.01000977 2
504084.34999847 463037.25999451 382.94000244 2
504082.37000275 463039.88000488 383.01998901 2
504090.98999786 463028.53999329 382.95001221 2
504079.48000336 463043.72999573 386.64001465 16
504082.22000122 463040.13000488 383.01000977 2
504085.26000214 463036.1499939 382.94000244 2
504081.44000244 463041.21000671 382.94000244 2
504092.05999756 463027.20999908 382.97000122 2
504089.16999817 463031.02999878 382.92999268 2
504087.80000305 463032.86000061 382.92001343 2
504078.11000061 463045.6499939 386.13000488 16
504076.47000122 463047.83999634 387.72000122 16
504079.91000366 463043.32000732 386.38000488 16
504091.83000183 463027.61000061 383.01000977 2
504078.19999695 463045.6000061 386.1499939 16
504089.69999695 463030.44999695 383.02999878 2
504084.65000153 463037.13000488 382.88000488 2
504088.51999664 463032.03999329 382.86999512 2
504085.58999634 463035.91999817 382.98999023 2
504078.02999878 463045.91000366 385.91000366 16
504090.95999908 463028.86999512 382.95001221 2
504077.16000366 463047.1000061 382.92001343 2
504085.52999878 463036.07000732 382.91000366 2
504087.23000336 463033.8500061 385.3999939 16
504089.91000366 463030.33000183 383.14001465 2
504090 463030.22000122 383.1000061 2
504083.20999908 463039.19999695 383.01998901 2
504091.94000244 463027.70999908 382.98999023 2
504087.09999847 463034.11000061 385.26998901 16
504091.26000214 463028.6499939 382.92001343 2
504077.56999969 463046.72000122 382.97000122 2
504087.48000336 463033.66000366 384.67999268 16
504088.51000214 463032.32000732 382.92001343 2
504091.94000244 463027.80999756 383.01998901 2
504076.72000122 463047.8999939 387.85998535 16
504081.83999634 463041.16999817 382.98001099 2
504080.12000275 463043.44999695 386.42999268 16
504088.11000061 463032.94000244 382.95999146 2
504084.91000366 463037.16999817 382.8999939 2
504082.20999908 463040.75 382.94000244 2
504091.48000336 463028.52999878 382.95999146 2
504076.65000153 463048.11999512 387.95001221 16
504086.76999664 463034.77999878 385.77999878 16
504081.15000153 463042.22000122 382.92999268 2
504080.19999695 463043.47999573 386.38000488 16
504093.01999664 463026.58999634 382.82998657 2
504077.81999969 463046.6499939 383.01998901 2
504082.5 463040.5 383.01000977 2
504091.77999878 463028.27999878 383 2
504081.04000092 463042.46000671 382.86999512 2
504078.12999725 463046.30999756 385.6499939 16
504089.44000244 463031.41000366 382.92999268 2
504085.41999817 463036.72999573 382.8999939 2
504089.51000214 463031.3500061 382.89001465 2
504087 463034.67999268 385.82998657 16
504087.31999969 463034.27000427 385.20001221 16
504086.83000183 463034.94000244 385.48001099 16
504092.51000214 463027.44999695 382.98001099 2
504079.04000092 463045.25 385.75 16
504089.54000092 463031.41000366 382.8999939 2
504078.80000305 463045.58999634 386.10998535 16
504081.23999786 463042.3999939 382.95001221 2
504087.75 463033.82000732 384.82998657 16
504087.55999756 463034.08000183 385.20001221 16
504088.26000214 463033.17999268 384.45001221 16
504085.84999847 463036.36999512 384.57000732 16
504079.33000183 463044.99000549 386.45001221 16
504081.04000092 463042.75 385.94000244 16
504083.08000183 463040.08000183 383.01000977 2
504081.47000122 463042.22000122 382.98999023 2
504079.62999725 463044.66000366 385.95001221 16
504090.26000214 463030.66000366 383.05999756 2
504087.52999878 463034.27000427 385.14001465 16
504092.91999817 463027.18000031 382.98999023 2
504083.11000061 463040.13999939 383.01998901 2
504083.06999969 463040.19999695 383.02999878 2
504091.58999634 463028.99000549 383.01998901 2
504083.30000305 463039.94000244 382.94000244 2
504086.59999847 463035.61000061 385.60998535 16
504078.58000183 463046.19000244 382.97000122 2
504078.52999878 463046.27999878 386.08999634 16
504082.41999817 463041.16000366 383.01000977 2
504082.69000244 463040.83000183 382.98001099 2
504088.38999939 463033.32000732 384.44000244 16
504087.31999969 463034.75999451 385.75 16
504082.88999939 463040.61000061 383.05999756 2
504078.62999725 463046.25 386.10998535 16
504092.26000214 463028.27999878 383.98001099 16
504078.84999847 463045.99000549 386.47000122 16
504090.44000244 463030.72000122 383.01998901 2
504088.94999695 463032.69999695 382.88000488 2
504082.51000214 463041.22000122 383.01000977 2
504091.26000214 463029.67999268 382.92001343 2
504085.76000214 463036.96000671 382.92001343 2
504086.34999847 463036.19999695 382.98001099 2
504092.5 463028.11000061 382.89001465 2
504087.66000366 463034.5 385.5 16
504087.44000244 463034.83000183 385.91000366 16
504091.76999664 463029.13000488 382.97000122 2
504089.01999664 463032.77000427 382.83999634 2
504086.51000214 463036.1000061 382.98001099 2
504089.86000061 463031.69999695 382.98001099 2
504079.34999847 463045.58000183 386.67001343 16
504078.22000122 463047.08000183 385.47000122 16
504081.47000122 463042.82000732 382.92001343 2
504087.65000153 463034.67999268 385.51000977 16
504078.69000244 463046.52000427 382.89001465 2
504083.58999634 463040.07000732 383 2
504080.44999695 463044.22000122 386.05999756 16
504083.62000275 463040.05999756 383 2
504079.84999847 463045.05999756 386.08999634 16
504092.55999756 463028.30999756 384.61999512 16
504078.87999725 463046.36000061 385.92999268 16
504084.41999817 463039.07000732 383.73001099 16
504085.29000092 463037.96000671 382.89001465 2
504089.97000122 463031.80000305 383.01000977 2
504085.83000183 463037.27000427 382.95001221 2
504084.69999695 463038.78999329 382.80999756 2
504089.77999878 463032.11000061 382.91000366 2
504079.31999969 463045.91000366 385.64001465 16
504091.19000244 463030.27999878 382.91000366 2
504081.77999878 463042.69999695 382.95001221 2
504088.48000336 463033.88000488 384.04998779 16
504086.48999786 463036.52000427 383 2
504090.97000122 463030.6499939 382.97000122 2
504088.01999664 463034.55000305 385.10998535 16
504080.62999725 463044.32000732 386.07000732 16
504078.41999817 463047.25 382.94000244 2
504086.45999908 463036.66000366 382.95999146 2
504084.56999969 463039.16999817 382.94000244 2
504079.22000122 463046.24000549 385.82998657 16
504089.41000366 463032.83000183 382.8500061 2
504082.70999908 463041.67999268 382.95999146 2
504085.31999969 463038.25 382.88000488 2
504088.27999878 463034.36999512 384.41000366 16
504079.31999969 463046.21000671 385.42001343 16
504081.12999725 463043.8500061 385.47000122 16
504091.47000122 463030.22000122 382.97000122 2
504085.66000366 463037.8999939 382.92999268 2
504089.80000305 463032.46000671 382.92001343 2
504092.20999908 463029.30000305 383.41000366 16
504090.54000092 463031.50999451 382.94000244 2
504080.37999725 463044.92999268 385.19000244 16
504081.55000305 463043.3999939 382.94000244 2
504087.41999817 463035.67999268 384.79000854 16
504088.98999786 463033.61999512 382.88000488 2
504083.90000153 463040.3500061 383 2
504084.12000275 463040.1000061 382.95001221 2
504089.86000061 463032.55000305 382.94000244 2
504087.58999634 463035.55999756 385.5 16
504084.26999664 463039.94000244 382.89001465 2
504079.16000366 463046.69999695 382.89001465 2
504086.65000153 463036.83999634 382.95999146 2
504079.37000275 463046.47000122 385.17001343 16
504087.84999847 463035.30000305 383.76000977 16
504080.33999634 463045.22000122 385.17999268 16
504080.87000275 463044.52999878 385.67999268 16
504091.27999878 463030.83999634 382.92001343 2
504080.08000183 463045.61999512 385.48999023 16
504079.65000153 463046.21000671 385.5 16
504092.72000122 463028.99000549 385.66000366 16
504088.12999725 463035.05999756 385.42001343 16
504088.16999817 463035.02000427 385.23001099 16
504083.72000122 463040.91000366 382.94000244 2
504086.41000366 463037.38999939 382.98999023 2
504090.91999817 463031.46000671 382.94000244 2
504087.80999756 463035.57000732 382.95001221 2
504086.33999634 463037.52999878 382.98999023 2
504085.87999725 463038.16000366 384.52999878 16
504079.58000183 463046.49000549 385.42999268 16
504086.75 463037.05999756 382.95999146 2
504083.20999908 463041.75 382.98999023 2
504087.80999756 463035.69999695 382.86999512 2
504082.62000275 463042.55999756 382.97000122 2
504089.22000122 463033.86999512 382.8999939 2
504089.48000336 463033.55000305 382.8500061 2
504087.34999847 463036.36999512 382.92999268 2
504090.66999817 463032.00999451 382.89001465 2
504080.25 463045.77000427 382.80999756 2
504092.33000183 463029.8500061 383.48999023 16
504093.02999878 463028.96000671 385.61999512 16
504087.79000092 463035.88999939 382.85998535 2
504084.75 463039.91000366 384.82000732 16
504079.83000183 463046.41999817 382.88000488 2
504086.83999634 463037.19000244 382.97000122 2
504081.83999634 463043.80000305 382.95001221 2
504079.72000122 463046.61000061 385.36999512 16
504085.33000183 463039.22999573 384.47000122 16
504083.20999908 463042.03999329 383.01000977 2
504090.20999908 463032.83000183 382.88000488 2
504083.34999847 463041.88999939 383.04000854 2
504087.26000214 463036.75999451 382.98001099 2
504090.76999664 463032.16000366 382.83999634 2
504089.81999969 463033.42999268 382.8500061 2
504091.56999969 463031.13000488 382.92001343 2
504088.58999634 463035.07000732 383.91000366 16
504086.47000122 463037.88999939 384.60998535 16
504081.58000183 463044.3500061 385.36999512 16
504091.11000061 463031.80999756 382.85998535 2
504087.5 463036.6000061 382.92001343 2
504082.81999969 463042.78999329 382.98001099 2
504085.94999695 463038.66999817 385.39001465 16
504080.47000122 463045.91999817 382.92001343 2
504087.23000336 463037.02999878 382.91000366 2
504081.79000092 463044.22999573 385.25 16
504092.34999847 463030.32000732 383.67999268 16
504086.27999878 463038.33999634 385.05999756 16
504082.16000366 463043.78999329 382.92999268 2
504082.94000244 463042.77999878 382.95999146 2
504091.13999939 463031.97999573 382.83999634 2
504090.19000244 463033.25999451 382.85998535 2
504090.43000031 463032.97000122 382.8500061 2
504086.66000366 463037.96000671 384.8500061 16
504085.48999786 463039.52000427 385.22000122 16
504080.52999878 463046.08999634 382.88000488 2
504080.5 463046.13999939 382.85998535 2
504088.16999817 463036.05000305 382.89001465 2
504088.76000214 463035.28999329 382.82000732 2
504092.98000336 463029.75 386.6000061 16
504083.95999908 463041.66000366 383 2
504090.72000122 463032.77000427 382.86999512 2
504080.30000305 463046.52000427 382.86999512 2
504080.94000244 463045.72000122 382.95001221 2
504082.37999725 463043.83999634 382.92999268 2
504090.37999725 463033.28999329 382.8500061 2
504091.95999908 463031.25 382.92999268 2
504080.41999817 463046.47999573 382.8999939 2
504084.08000183 463041.66999817 382.98001099 2
504086.54000092 463038.44999695 385.32000732 16
504082.29000092 463044.08999634 382.94000244 2
504083.27999878 463042.78999329 382.97000122 2
504082.51999664 463043.80999756 382.92001343 2
504091.55000305 463031.91999817 382.8500061 2
504092.51999664 463030.66999817 382.92001343 2
504087.08999634 463037.8500061 384.3500061 16
504084.94000244 463040.69999695 382.85998535 2
504090.15000153 463033.86999512 382.85998535 2
504088.51000214 463036.03999329 382.86999512 2
504092.56999969 463030.71000671 382.91000366 2
504081.18000031 463045.74000549 382.95999146 2
504088.44999695 463036.19000244 382.82998657 2
504091.94999695 463031.58999634 382.82998657 2
504087.41000366 463037.58999634 382.94000244 2
504082.63999939 463043.91000366 382.8999939 2
504090.06999969 463034.13999939 382.88000488 2
504089.66999817 463034.67999268 382.8500061 2
504081.16999817 463045.91000366 382.92001343 2
504088.45999908 463036.30999756 382.82998657 2
504086.69000244 463038.67999268 385.45001221 16
504091.18000031 463032.77000427 382.82998657 2
504081.23999786 463045.8999939 382.92999268 2
504086.98000336 463038.36999512 385.29000854 16
504091.87000275 463031.92999268 382.85998535 2
504086.02999878 463039.6499939 385.70999146 16
504085.65000153 463040.16999817 385.14001465 16
504081.5 463045.66999817 382.95001221 2
504088.76000214 463036.11999512 382.8500061 2
504087.06999969 463038.36000061 385.29998779 16
504081.66000366 463045.50999451 382.92999268 2
504086.30000305 463039.41999817 385.73001099 16
504086.59999847 463039.03999329 385.35998535 16
504084.26000214 463042.13999939 382.89001465 2
504089.58000183 463035.1499939 382.86999512 2
504088.80999756 463036.19000244 382.86999512 2
504085.58000183 463040.47999573 384.8999939 16
504092.55000305 463031.30000305 382.8500061 2
504086.76999664 463038.96000671 385.36999512 16
504086.33999634 463039.52999878 385.70999146 16
504092.76000214 463031.08999634 382.88000488 2
504087.97000122 463037.41999817 382.94000244 2
504087.31999969 463038.30000305 384.92001343 16
504084.16999817 463042.49000549 384.97000122 16
504086.16000366 463039.88000488 385.75 16
504087.62999725 463037.97000122 382.92999268 2
504085.58000183 463040.69000244 384.54000854 16
504090.97000122 463033.61000061 382.80999756 2
504090.27999878 463034.53999329 382.88000488 2
504090.72000122 463033.97999573 382.83999634 2
504087.97000122 463037.63999939 382.92999268 2
504090.98000336 463033.67999268 382.82000732 2
504090.29000092 463034.61000061 382.86999512 2
504083.11000061 463044.11999512 382.92001343 2
504085.51000214 463040.96000671 384.82998657 16
504086.09999847 463040.22000122 385.41000366 16
504090.61000061 463034.28999329 382.86999512 2
504092.73999786 463031.49000549 382.8500061 2
504083.09999847 463044.25 382.95001221 2
504085.72000122 463040.80000305 384.95999146 16
504088.16999817 463037.58999634 382.8999939 2
504086.15000153 463040.28999329 385.44000244 16
504085.76999664 463040.80000305 384.67999268 16
504088.01000214 463037.86999512 382.8999939 2
504089.19000244 463036.33000183 382.83999634 2
504087.61000061 463038.44000244 384.70999146 16
504089.02999878 463036.58999634 382.83999634 2
504084.26000214 463042.91000366 382.88000488 2
504087.34999847 463038.8500061 385.48999023 16
504086.22000122 463040.36000061 385.48001099 16
504088.76999664 463037.02999878 382.88000488 2
504089.51000214 463036.07000732 382.88000488 2
504082.12999725 463045.82000732 382.8999939 2
504084.73000336 463042.41999817 385.23999023 16
504086.16999817 463040.53999329 385.55999756 16
504086.44999695 463040.19000244 385.64001465 16
504087.91999817 463038.25999451 384.73999023 16
504088.29000092 463037.80999756 382.8999939 2
504089.11000061 463036.75 382.85998535 2
504090.12999725 463035.41999817 382.8999939 2
504086.12000275 463040.74000549 385.30999756 16
504085.55999756 463041.5 386.17999268 16
504083.05000305 463044.82000732 382.92001343 2
504090.26000214 463035.3500061 382.89001465 2
504088.73999786 463037.36999512 382.83999634 2
504092.94999695 463031.83000183 382.79998779 2
504085.83999634 463041.24000549 385.41000366 16
504085.06999969 463042.27000427 385.67999268 16
504089.54000092 463036.38999939 382.86999512 2
504086 463041.08999634 385.26998901 16
504083.33000183 463044.63999939 382.98999023 2
504082.33000183 463045.97000122 382.92999268 2
504090.69000244 463034.97000122 382.92001343 2
504089.34999847 463036.75999451 382.85998535 2
504090.5 463035.25999451 382.94000244 2
504088.05999756 463038.50999451 385.05999756 16
504087.80000305 463038.86999512 385.26998901 16
504084.12999725 463043.74000549 385.42999268 16
504089.04000092 463037.27999878 382.89001465 2
504086.51000214 463040.63999939 385.45999146 16
504091.26000214 463034.3999939 384.07998657 16
504084.01999664 463043.97999573 384.55999756 16
504084.75 463043.03999329 385.64001465 16
504083.75 463044.38000488 382.91000366 2
504084.31999969 463043.63999939 385.69000244 16
504086.55999756 463040.72000122 385.29998779 16
504084.56999969 463043.36000061 385.63000488 16
504086.01000214 463041.5 385.29998779 16
504092.61000061 463032.80999756 382.80999756 2
504086.65000153 463040.69000244 385.42999268 16
504082.02999878 463046.80000305 382.94000244 2
504092.76999664 463032.66999817 382.88000488 2
504086.04000092 463041.57000732 385.60998535 16
504083.83999634 463044.49000549 385.75 16
504082.37999725 463046.44000244 382.94000244 2
504089.26000214 463037.38999939 382.8500061 2
504089.70999908 463036.83000183 382.89001465 2
504084.23000336 463044.08000183 385.54998779 16
504083.19999695 463045.47000122 382.92999268 2
504087.26999664 463040.11000061 385.98001099 16
504086.16000366 463041.61000061 385.6000061 16
504085.77999878 463042.13000488 386.17999268 16
504083.87000275 463044.67999268 386.23001099 16
504087.97000122 463039.28999329 385.42999268 16
504085.83999634 463042.11999512 386.1499939 16
504091.23999786 463035.02000427 382.86999512 2
504086.13999939 463041.77000427 385.70999146 16
504085.43000031 463042.74000549 386.51998901 16
504085.54000092 463042.61000061 386.51998901 16
504083.51000214 463045.32000732 382.97000122 2
504087.47000122 463040.11999512 386.02999878 16
504082.94999695 463046.11000061 382.92999268 2
504084.40000153 463044.22000122 385.83999634 16
504085.87999725 463042.30000305 386.22000122 16
504090.15000153 463036.67999268 382.86999512 2
504082.59999847 463046.66999817 382.89001465 2
504084.13999939 463044.66000366 386.25 16
504091.31999969 463035.22000122 382.82998657 2
504085.40000153 463043.07000732 386.52999878 16
504084.51999664 463044.24000549 386.16000366 16
504083.98000336 463044.97000122 382.92999268 2
504088.34999847 463039.24000549 383.76998901 16
504089.5 463037.75999451 382.88000488 2
504084.98999786 463043.72000122 386.3500061 16
504090.73999786 463036.16000366 382.8500061 2
504084.31999969 463044.66000366 383.8500061 16
504091.13999939 463035.69000244 382.8500061 2
504082.66999817 463046.86999512 382.8999939 2
504089.51000214 463037.86999512 382.86999512 2
504083.23000336 463046.17999268 382.94000244 2
504082.63999939 463046.97999573 382.86999512 2
504091.05000305 463035.92999268 382.80999756 2
504090.79000092 463036.27999878 382.82000732 2
504089.26999664 463038.32000732 382.89001465 2
504086.33999634 463042.19999695 385.79998779 16
504082.69999695 463047.03999329 382.8500061 2
504083 463046.66000366 382.82000732 2
504088.41999817 463039.53999329 383.70001221 16
504082.77999878 463047 382.88000488 2
504088.02999878 463040.08999634 385.85998535 16
504085.23999786 463043.80000305 387.1499939 16
504086.87000275 463041.66999817 385.79000854 16
504087.94000244 463040.28999329 382.8500061 2
504086.15000153 463042.66999817 385.94000244 16
504089.54000092 463038.24000549 382.8500061 2
504085.33000183 463043.80000305 387.23001099 16
504090.16000366 463037.44000244 382.82998657 2
504084.94999695 463044.36000061 386.55999756 16
504091.94000244 463035.1499939 384.6499939 16
504087.19999695 463041.42999268 385.5 16
504092.06999969 463035.02000427 383.39001465 16
504084.73000336 463044.74000549 386.55999756 16
504092.02999878 463035.11999512 384.57998657 16
504092.98999786 463033.88999939 385.97000122 16
504092.11000061 463035.07000732 383.36999512 16
504092.26000214 463034.91000366 385.04998779 16
504085.65000153 463043.6499939 387.04998779 16
504086.80000305 463042.16000366 385.92999268 16
504091.37000275 463036.1499939 382.95001221 2
504085.62000275 463043.75999451 386.8999939 16
504083.48999786 463046.58999634 382.85998535 2
504084.38999939 463045.42999268 386.1000061 16
504092.27999878 463035.05000305 385 16
504086.62999725 463042.52999878 386.41000366 16
504085.66000366 463043.83000183 386.91000366 16
504084.97000122 463044.77000427 386.8999939 16
504083.12999725 463047.21000671 382.82998657 2
504089.68000031 463038.61000061 382.86999512 2
504084.55000305 463045.38999939 386.27999878 16
504085.52999878 463044.11999512 386.95001221 16
504083.55999756 463046.74000549 382.85998535 2
504084.16000366 463045.99000549 385.77999878 16
504083.83000183 463046.46000671 382.82000732 2
504084.68000031 463045.3500061 386.48999023 16
504085.68000031 463044.05999756 387.04998779 16
504087.66999817 463041.46000671 382.80999756 2
504085.52999878 463044.32000732 387.04998779 16
504084.88999939 463045.17999268 386.82998657 16
504083.73000336 463046.74000549 382.82000732 2
504084.65000153 463045.55999756 386.1000061 16
504086.91000366 463042.58999634 386.39001465 16
504085.05999756 463045.07000732 386.92001343 16
504088.16000366 463040.99000549 382.79000854 2
504089.08999634 463039.80000305 382.82000732 2
504084.88999939 463045.36999512 386.42999268 16
504092.83000183 463034.91000366 385.44000244 16
504084.76000214 463045.58999634 386.25 16
504090.91999817 463037.49000549 382.79998779 2
504088.44000244 463040.78999329 382.98999023 2
504085.05000305 463045.30000305 386.63000488 16
504087.40000153 463042.19999695 385.88000488 16
504089.26000214 463039.78999329 382.98999023 2
504087.66000366 463041.91000366 385.8500061 16
504084.66999817 463045.8999939 385.73999023 16
504087.26999664 463042.47999573 386.35998535 16
504090.54000092 463038.19999695 382.82998657 2
504088.27999878 463041.21000671 382.76998901 2
504089.65000153 463039.42999268 382.91000366 2
504089.12999725 463040.13999939 382.82000732 2
504087.68000031 463042.07000732 385.95001221 16
504085.83000183 463044.55000305 387.05999756 16
504087.27999878 463042.66999817 386.42999268 16
504086.43000031 463043.80999756 387 16
504088.91999817 463040.55000305 382.86999512 2
504087.69000244 463042.19000244 385.97000122 16
504085.15000153 463045.57000732 386.42001343 16
504090.94000244 463037.96000671 382.80999756 2
504091.5 463037.24000549 382.80999756 2
504086.51999664 463043.8500061 386.86999512 16
504087.25 463042.8999939 386.51998901 16
504092.30999756 463036.27000427 382.73999023 2
504092.98000336 463035.3999939 385.16000366 16
504088.33000183 463041.55999756 383.26000977 2
504086.75 463043.67999268 386.82998657 16
504084.55999756 463046.58999634 385.72000122 16
504085.63999939 463045.19000244 386.79000854 16
504090.62000275 463038.66000366 382.85998535 2
504084.44000244 463046.82000732 382.77999878 2
504092.95999908 463035.61999512 384.8500061 16
504089.72000122 463039.91999817 382.8500061 2
504088.01999664 463042.21000671 385.89001465 16
504084.77999878 463046.49000549 382.8500061 2
504085.01000214 463046.22000122 382.82000732 2
504086.69000244 463044.03999329 386.29998779 16
504092.23000336 463036.75 382.75 2
504084.70999908 463046.69999695 382.80999756 2
504090.31999969 463039.33999634 382.86999512 2
504092.91999817 463035.92999268 382.76000977 2
504084.45999908 463047.11000061 382.82998657 2
504090.75 463038.8500061 382.86999512 2
504089.95999908 463039.92999268 382.83999634 2
504088.77999878 463041.49000549 383.01998901 2
504087.44999695 463043.27999878 386.80999756 16
504088.27999878 463042.22999573 385.73999023 16
504086.94999695 463044.02000427 386.6499939 16
504086.34999847 463044.82000732 386.91000366 16
504085.94000244 463045.3999939 386.70001221 16
504085.37000275 463046.16999817 384.57998657 16
504085.36000061 463046.22999573 382.82000732 2
504087.97000122 463042.80999756 386.01998901 16
504088.97000122 463041.52000427 382.86999512 2
504085.38999939 463046.25999451 385.79000854 16
504085.37999725 463046.32000732 382.82000732 2
504085.13999939 463046.6499939 382.82998657 2
504092.47000122 463037.02000427 382.85998535 2
504087.81999969 463043.16999817 385.85998535 16
504087.47000122 463043.66000366 386.64001465 16
504089.18000031 463041.44000244 382.91000366 2
504087.22000122 463044.05999756 386.66000366 16
504085.41000366 463046.44999695 384.70999146 16
504090.38999939 463039.91999817 382.83999634 2
504091.44000244 463038.57000732 382.79000854 2
504091.55000305 463038.44000244 382.77999878 2
504084.94999695 463047.16999817 382.85998535 2
504090.90000153 463039.36000061 382.75 2
504088.30000305 463042.82000732 385.73999023 16
504085.23999786 463046.8999939 382.86999512 2
504086.25 463045.58000183 386.58999634 16
504087.62999725 463043.78999329 386.57998657 16
504089.73000336 463041.05999756 382.97000122 2
504090.37999725 463040.22999573 382.82000732 2
504088.51000214 463042.72999573 385.44000244 16
504089.30000305 463041.72000122 382.88000488 2
504091.06999969 463039.3999939 382.76998901 2
504088.41999817 463042.94000244 385.70001221 16
504090.98999786 463039.58000183 382.77999878 2
504086.69999695 463045.27000427 386.79998779 16
504088.08999634 463043.47000122 385.77999878 16
504088.66000366 463042.75 385.48001099 16
504087.06999969 463044.88000488 386.98001099 16
504086.58999634 463045.55000305 386.47000122 16
504086.58000183 463045.57000732 385.57000732 16
504090.48999786 463040.44999695 382.86999512 2
504087.04000092 463045.02999878 386.98999023 16
504086.5 463045.77999878 386.41000366 16
504088.75 463042.86000061 385.54000854 16
504089.37999725 463042.05999756 382.8500061 2
504086.88999939 463045.38000488 385.54998779 16
504088.76000214 463042.94999695 384.23999023 16
504088.62999725 463043.1499939 382.76998901 2
504085.61000061 463047.16999817 382.79998779 2
504087.31999969 463044.94999695 386.63000488 16
504092.40000153 463038.27999878 385.1000061 16
504089.26999664 463042.44999695 383 2
504087.37000275 463044.99000549 386.38000488 16
504090.80000305 463040.5 382.85998535 2
504087.76999664 463044.52000427 386.26000977 16
504089.55999756 463042.19000244 382.98001099 2
504090.26000214 463041.30000305 382.85998535 2
504087.77999878 463044.6000061 386.1000061 16
504087.58000183 463044.8999939 386.5 16
504090.73999786 463040.77999878 382.88000488 2
504091.05999756 463040.3999939 382.76998901 2
504086.08999634 463046.99000549 382.79000854 2
504087.70999908 463044.86999512 386.08999634 16
504087.81999969 463044.77000427 386.32998657 16
504086.73999786 463046.22000122 382.64001465 2
504086.05000305 463047.16999817 382.79998779 2
504090.56999969 463041.24000549 382.85998535 2
504092.25 463039.05000305 385.82000732 16
504088.86000061 463043.55999756 385.45001221 16
504089.30000305 463043.00999451 382.82998657 2
504092.90000153 463038.30000305 385.16000366 16
504086.95999908 463046.16999817 386.10998535 16
504090.76000214 463041.19000244 382.82000732 2
504088.01999664 463044.83999634 386.05999756 16
504093.01999664 463038.27999878 385.17999268 16
504087.51999664 463045.55999756 386.02999878 16
504092.41000366 463039.16000366 385.47000122 16
504089.41999817 463043.13000488 382.82000732 2
504091.44999695 463040.5 382.8500061 2
504090.51999664 463041.75 382.91000366 2
504090.18000031 463042.24000549 382.94000244 2
504088.08999634 463045.02000427 385.98999023 16
504090.19000244 463042.28999329 382.91000366 2
504090.76000214 463041.57000732 382.77999878 2
504089.77999878 463042.91000366 382.85998535 2
504089.88999939 463042.80000305 382.80999756 2
504088.05000305 463045.25999451 386.23999023 16
504090.52999878 463042.02000427 382.95001221 2
504090.08000183 463042.6499939 382.83999634 2
504091.69999695 463040.55999756 385.72000122 16
504087.83999634 463045.67999268 385.72000122 16
504086.76999664 463047.13000488 382.80999756 2
504087.20999908 463046.58000183 382.73001099 2
504087.75 463045.8999939 385.86999512 16
504089.52999878 463043.6000061 384.76998901 16
504088.90000153 463044.47000122 385.6499939 16
504089.05000305 463044.30999756 385.48999023 16
504089.08999634 463044.28999329 385.5 16
504088.08999634 463045.66000366 385.88000488 16
504087.73000336 463046.16000366 382.8999939 2
504091.62999725 463041.05000305 382.89001465 2
504091.05999756 463041.83000183 382.82000732 2
504088.25 463045.58999634 385.57998657 16
504087.36000061 463046.78999329 382.73001099 2
504090.44000244 463042.75999451 382.77999878 2
504089.70999908 463043.78999329 382.83999634 2
504091.58999634 463041.33999634 382.79998779 2
504087.95999908 463046.17999268 385.67001343 16
504090.88999939 463042.3500061 382.79000854 2
504091.33999634 463041.78999329 382.82998657 2
504087.56999969 463046.80999756 382.76000977 2
504090.11000061 463043.49000549 385.41000366 16
504092.31999969 463040.6000061 385.72000122 16
504090.19000244 463043.46000671 385.54000854 16
504090.59999847 463042.96000671 382.79000854 2
504092.65000153 463040.30000305 385.17999268 16
504090.48999786 463043.17999268 382.73999023 2
504091.5 463041.91000366 382.76998901 2
504089.66000366 463044.36000061 382.70001221 2
504091.41000366 463042.1000061 385.36999512 16
504090.45999908 463043.38999939 385.79998779 16
504091.23999786 463042.41000366 382.79000854 2
504088.16000366 463046.5 382.73999023 2
504090.26999664 463043.77000427 385.54998779 16
504088.63999939 463045.94999695 385.51998901 16
504091.81999969 463041.80000305 385.66000366 16
504092.26000214 463041.27000427 385.94000244 16
504090.91999817 463043.08000183 385.98001099 16
504090.94999695 463043.07000732 385.98999023 16
504090.18000031 463044.13999939 382.75 2
504090.26000214 463044.05999756 382.70999146 2
504090.26000214 463044.11000061 385.25 16
504090.13999939 463044.32000732 382.70001221 2
504090.83000183 463043.46000671 382.76000977 2
504090.58000183 463043.83999634 386.07000732 16
504090.88999939 463043.47999573 386.45001221 16
504090.77999878 463043.67999268 382.67999268 2
504090.13999939 463044.57000732 382.80999756 2
504089.94999695 463044.86999512 382.80999756 2
504092.91999817 463041 385.58999634 16
504091.05999756 463043.49000549 386.33999634 16
504092.69999695 463041.38999939 385.57000732 16
504089.22000122 463046.02999878 382.75 2
504089.54000092 463045.66000366 382.73001099 2
504089.48000336 463045.80000305 382.76000977 2
504091.55000305 463043.11000061 386.1000061 16
504092.08999634 463042.44000244 385.54998779 16
504092.88999939 463041.44000244 385.48001099 16
504089.04000092 463046.57000732 382.70999146 2
504088.97000122 463046.71000671 382.70999146 2
504090.31999969 463044.99000549 382.76998901 2
504090.05000305 463045.3999939 382.75 2
504090.94999695 463044.27000427 386 16
504089.65000153 463046.05000305 382.76000977 2
504091.48000336 463043.69000244 385.6000061 16
504089.12999725 463046.83999634 382.72000122 2
504090.48000336 463045.1000061 382.80999756 2
504090.19999695 463045.52999878 382.79000854 2
504092.51999664 463042.52000427 385.82998657 16
504092.87000275 463042.11000061 385.88000488 16
504091.76000214 463043.63000488 386.07998657 16
504091.87000275 463043.55000305 386.22000122 16
504089.62000275 463046.57000732 382.76000977 2
504090.87000275 463044.96000671 384.67999268 16
504092.11000061 463043.3999939 386.39001465 16
504090.93000031 463045 384.69000244 16
504089.40000153 463047.08999634 382.75 2
504089.90000153 463046.47000122 382.72000122 2
504089.62999725 463046.88999939 382.75 2
504089.93000031 463046.55000305 382.75 2
504090.01000214 463046.5 382.72000122 2
504092.77999878 463042.91000366 386.27999878 16
504092.05999756 463043.92999268 386.45999146 16
504091.29000092 463044.99000549 386.04000854 16
504091.79000092 463044.41000366 386.01000977 16
504090.58000183 463046.08000183 382.72000122 2
504089.94999695 463046.97999573 382.70999146 2
504091.19000244 463045.3999939 384.95001221 16
504091.19000244 463045.47000122 384.79000854 16
504091.18000031 463045.55000305 385.11999512 16
504090.40000153 463046.66000366 382.70999146 2
504090.19999695 463047 382.69000244 2
504091.51000214 463045.33999634 382.67001343 2
504092.52999878 463044.07000732 386.54000854 16
504091.37999725 463045.66000366 384.05999756 16
504091.59999847 463045.44000244 382.76998901 2
504090.88999939 463046.44000244 382.75 2
504090.80999756 463046.63000488 382.73001099 2
504091.19000244 463046.19999695 382.69000244 2
504092.30999756 463044.80999756 386.58999634 16
504092.75 463044.28999329 386.88000488 16
504092.77999878 463044.33000183 386.67999268 16
504091.51999664 463046.08000183 386.5 16
504091.61000061 463046.03999329 384.70001221 16
504091.75 463045.94999695 382.66000366 2
504092.69999695 463044.78999329 385.6499939 16
504091.80000305 463046.05999756 385.95001221 16
504091.54000092 463046.5 382.67999268 2
504092.79000092 463044.92999268 386.57998657 16
504091.62000275 463046.58000183 382.70001221 2
504092.33999634 463045.72999573 386.1499939 16
504092.48000336 463045.6499939 386.26000977 16
504092.73999786 463045.41999817 386.51000977 16
504092.56999969 463045.78999329 386.25 16
504093 463045.3500061 386.5 16
504092.73000336 463045.83999634 386.29998779 16
504092.80000305 463045.88000488 386.32998657 16
504092.72000122 463046.13000488 386.02999878 16
504092.44999695 463046.66000366 385.38000488 16
504092.87999725 463046.28999329 385.88000488 16
504092.41000366 463047.1000061 385.30999756 16
504092.51000214 463047.17999268 385.14001465 16
504092.84999847 463047.11000061 385.01000977 16
504054.75 463039.69999695 383.48999023 2
504054.81000137 463040.17999268 383.47000122 2
504054.95000076 463040.38999939 383.48001099 2
504055.52999878 463039.94999695 383.48001099 2
504054.77000046 463041.22999573 383.5 2
504054.81000137 463041.44000244 383.48001099 2
504054.74000168 463041.74000549 383.48999023 2
504055.25 463041.25999451 383.47000122 2
504054.93999863 463041.86999512 383.42001343 2
504054.77000046 463042.27999878 383.41000366 2
504055.66999817 463041.25999451 383.45999146 2
504056.15000153 463040.78999329 383.44000244 2
504055.04999924 463042.38999939 383.42001343 2
504056.02000046 463041.25 383.44000244 2
504054.72000122 463043.11000061 383.51998901 2
504055.83000183 463041.77000427 383.42999268 2
504055.75999832 463042 383.45001221 2
504056.34999847 463041.36999512 383.42999268 2
504055.93999863 463042.07000732 383.42999268 2
504054.93999863 463043.52000427 383.45001221 2
504056.81000137 463041.16999817 383.38000488 2
504056.25999832 463042.03999329 383.42001343 2
504056.61000061 463041.71000671 383.39001465 2
504056.86000061 463041.5 383.38000488 2
504055.83000183 463042.97000122 383.48001099 2
504054.90999985 463044.27999878 383.44000244 2
504055.63999939 463043.41000366 383.3999939 2
504054.68000031 463044.77999878 383.39001465 2
504056.90999985 463041.94000244 383.36999512 2
504055.38000107 463044.03999329 384.95999146 16
504055.81000137 463043.55999756 383.41000366 2
504056.02999878 463043.3500061 384.85998535 16
504054.70999908 463045.16000366 383.42999268 2
504057 463042.22000122 383.3500061 2
504056.20999908 463043.3500061 384.92999268 16
504056.79000092 463042.6499939 383.42001343 2
504055.63000107 463044.25999451 383.3999939 2
504057.56999969 463041.77000427 383.3500061 2
504056.15000153 463043.71000671 384.77999878 16
504054.79999924 463045.55000305 383.42999268 2
504056.22000122 463043.75 384.88000488 16
504057.97000122 463041.52000427 385.83999634 16
504057.49000168 463042.22000122 385.73999023 16
504057.02000046 463042.91000366 383.44000244 2
504055.36000061 463045.17999268 383.41000366 2
504056.31999969 463043.99000549 385.27999878 16
504056.70000076 463043.57000732 385.02999878 16
504056.13999939 463044.38999939 384.82998657 16
504054.90000153 463046.1000061 383.42001343 2
504055.52999878 463045.33000183 383.41000366 2
504056.02999878 463044.74000549 385.52999878 16
504056.20000076 463044.58000183 385.01000977 16
504055.68999863 463045.32000732 383.3999939 2
504055.95000076 463045.03999329 384.48001099 16
504054.74000168 463046.72999573 383.45999146 2
504055.86000061 463045.32000732 383.3500061 2
504055.25 463046.22000122 383.39001465 2
504055.5 463045.97000122 383.3500061 2
504055.09999847 463046.58000183 383.39001465 2
504056.56999969 463044.72999573 386.75 16
504056.59999847 463044.74000549 386.91000366 16
504055.36000061 463046.46000671 383.27999878 2
504054.72999954 463047.36999512 383.3999939 2
504056.04000092 463045.69999695 383.36999512 2
504056.40000153 463045.30999756 383.26998901 2
504056.27000046 463045.55000305 385.29998779 16
504057.40999985 463044.11000061 387.88000488 16
504056.09999847 463045.8999939 383.20999146 2
504058.27000046 463043.11000061 387.22000122 16
504055.16999817 463047.27000427 383.3999939 2
504057.47000122 463044.30000305 387.82998657 16
504057.02999878 463044.94000244 387.38000488 16
504055.43000031 463047.11999512 383.36999512 2
504058.68999863 463042.88999939 386.42001343 16
504056.04999924 463046.44000244 383.44000244 2
504057.90000153 463044.08000183 387.73001099 16
504055.97999954 463046.66999817 383.35998535 2
504057.43000031 463044.83000183 387.63000488 16
504055.54000092 463047.3999939 383.3999939 2
504056.84999847 463045.74000549 384.38000488 16
504056.70000076 463046.02000427 384.77999878 16
